ply
format ascii 1.0
element vertex 695
property double x
property double y
property double z
property uchar red
property uchar green
property uchar blue
end_header
-0.6982593530036449 0.1807360927415373 1.1730117927222055 50 39 35
-0.0414760316277900 0.2282471304520689 1.0899190381326593 71 63 42
-0.8402553476302521 0.2038225662459921 1.1216405554939617 41 30 28
-0.2960178194743094 0.2459509744838965 0.8371436598486388 83 71 47
-0.8409752534296052 0.2497695708703747 1.0157689162557486 148 143 139
-0.9703320668434342 0.2304333994288746 0.9644415843018840 53 62 71
-0.9410302929162040 0.2448427948613526 0.9048521842148105 159 160 154
-0.9868489160728510 0.2438521312273076 0.8979142378688931 72 70 71
-0.7385870677071014 0.2857208598417614 0.8610955012442183 130 125 122
-0.5861582308499212 0.2669015981495587 0.6944223603313269 81 78 63
-0.9892140103167186 0.2715564707928950 0.8808844393095676 117 112 109
-0.9298038834507476 0.2868756330596812 0.8358499674222302 124 124 124
-0.9118841599243679 0.2976024211048667 0.8528446309571870 98 102 105
-0.9622093275149883 0.2868968611100365 0.8460402391383203 124 120 117
-0.9945028483913873 0.2864261407832537 0.8376196480793980 164 159 153
-0.9223894225066869 0.2993172886923141 0.8149816407264304 106 106 104
-0.8630078183918765 0.2897241088107912 0.7311688477587021 77 77 79
-0.9908872997109256 0.3122133881164967 0.7973154417023324 139 134 130
-0.7302812149073870 -0.3745730877026179 1.0729565815184010 124 92 71
-0.6269699444814444 -0.4144833319952137 1.1274191529585291 73 43 35
-0.9419384314541316 -0.2880289327086745 1.0367463939711417 116 86 62
0.1363479195938372 -0.3936818739630897 1.3380327712392088 77 28 11
-0.8129638232650033 -0.1941714975239086 1.1424230505986666 172 178 176
-0.5272117718030594 -0.1526719975384158 1.2149170919234031 125 127 122
-0.0417722251110500 -0.2133898791810860 1.3294600542310888 195 204 203
-0.6963068192335089 -0.0027686062527065 1.1715416641261127 137 141 142
0.3755914890681735 0.1649075355694067 1.4389067730847753 153 131 110
0.3188473330001728 0.2098095180607302 1.2583414893561466 119 108 102
-0.8494924724953061 0.2067456682718082 1.1419780345033785 133 139 139
-0.8086252772831716 0.2163926150223716 1.1333729047494441 139 124 117
-0.8283743715158406 0.2169121120299539 1.0533841559472454 87 70 63
-0.8266934503595849 0.2372519335912094 1.1468768541833076 60 50 48
-0.8566029439330050 0.2208768574358621 1.0186059800903007 142 138 129
-0.9843157389146631 0.2410774806823349 0.9180911264446371 152 151 146
-0.7609094983361122 0.2725777522124955 0.9138284376206776 130 131 126
-0.7564009237566608 0.2773275988141110 0.8984488456464906 120 117 110
-0.8737425614288964 0.2693750984404948 0.9232810984526956 128 127 125
-0.8925557566544559 0.2792831440312764 0.8860648772318235 120 116 113
-0.8555292804756172 0.2903689350881965 0.8799759646889678 118 122 123
-0.8585976004315202 0.2981828010366606 0.8773598110743468 78 82 83
-0.9343786621611656 0.2839712133393148 0.8611857164666457 97 99 98
-0.9530729493381601 0.2850942921306097 0.8561298808887796 153 158 154
-0.9509318967932945 0.2872332905760359 0.8314302514451711 107 109 108
-0.8177988951404471 0.2942463686270952 0.6536463255981343 57 59 48
-0.7676042557742497 0.2943847490548204 0.6214826512440418 90 87 68
-0.9083218009545952 -0.3033880906045363 1.0381463756080045 109 76 57
-0.2264529998601085 -0.4967227294002843 1.2508692594220774 61 23 10
-0.5876029152823858 -0.3211876689589563 1.1972218148191689 195 201 199
-0.1394522772949135 -0.3417768723822777 1.3037780162644639 222 224 221
-0.5327074068873754 -0.2442593435829988 1.2067380009593645 194 195 190
-0.7994563601879141 -0.1943875751837583 1.1389272485150783 206 215 214
-0.7915453896925594 -0.1629710320298947 1.1436622917821153 152 157 160
-0.7672598631688099 -0.0602606920199849 1.1588677555407210 113 116 109
-0.8892479308405601 0.0359143454712293 1.0697563937907206 8 8 8
-0.4908612419720098 0.0365639929482527 1.2251144583254383 179 185 183
-0.7599310678501150 0.0594388886445438 1.1609871970991270 193 202 201
-0.1601067896452506 0.2314157649547185 0.9841997398282843 57 54 35
-0.8323614438371956 0.2138048049084981 1.1424224463680934 33 23 21
-0.8022367489658723 0.2343271482216572 1.0813120295881298 164 160 149
-0.7712181315698466 0.2370702236140739 1.0895677225896809 158 155 148
-0.8088664618212020 0.2477759494647557 0.9904835331162970 133 126 118
-0.7407741073286563 0.2711050082779329 0.9732686470142508 150 152 149
0.1839922130192883 0.1771179689784987 1.3865633922968128 179 168 150
-0.9505475369527897 0.2829944154266422 0.8788094122279064 91 92 94
-0.9088832235460647 0.2920536913418066 0.8572468388183109 62 65 72
-0.7562525648930823 0.2877765180052201 0.6960046019240258 121 118 111
-0.8622694977000123 0.3046538336079506 0.7686225283097404 110 114 115
-0.8831878071249325 0.2948721417071884 0.7184193934780355 109 105 104
-0.7766076974637759 0.2987655555592998 0.6239660480951643 41 40 35
-0.7739158640418924 -0.1062514900086807 1.1446683479515811 61 55 39
0.2293018181812922 0.1510458183646503 1.4112795202818507 121 106 99
-0.7878590567718744 0.2284936235674764 1.1443034981369751 72 68 65
-0.6097597484591938 0.2725577754671449 0.7442219856884736 106 97 92
-0.9040839145796440 0.2828581242735347 0.8647328477994964 133 133 131
-0.9827269015650352 0.2998751359713322 0.8336708755201169 115 115 115
-0.9151476693399134 0.3135161169351190 0.7966869651663246 111 110 108
-0.6446047976408038 0.2850155483244147 0.5654561349735507 58 51 33
-0.7462239943994413 -0.0485633391131687 1.1633657252122638 178 184 182
-0.4585932653860400 0.2571535689596083 1.0007666673100724 171 172 167
-0.7100469084977582 0.2815424702789976 0.7501752221193582 158 151 143
-0.9316805820685180 0.3025019988926694 0.7917811854310050 140 142 139
-0.2672769594983030 -0.4752937013573039 1.2550944662874628 79 69 67
-0.7331793813426406 0.0620539285190797 1.1640623113387172 206 207 201
-0.7905334219028564 0.2354160690326992 1.0781904504873039 154 151 142
-0.7530871031427502 0.2419333083991323 1.0179793541341882 119 110 103
-0.7301611095161018 0.3513092839252950 0.7632507965010928 39 41 36
-0.8138860526008657 -0.0785639342541709 1.1403998472621084 182 191 188
-0.4496900923367632 0.2335329014166714 1.2011933639506533 34 30 31
-0.8305318133740505 0.3239246121632605 1.0316898004536075 143 142 138
-0.9082271923468070 0.2852818857550185 0.8253278594353224 66 67 72
-0.8736394260337202 0.0623703625403502 1.0897320404842286 36 38 37
-0.4358347459607739 0.1844612991536029 1.1952964671692483 63 43 36
-0.7799312892685250 0.1981356049031797 1.1423275158673643 107 91 78
-0.6777765940077434 0.2243685237301076 1.0568142426283316 9 32 40
-0.8197511992128299 0.3188225411695315 0.8386157574310694 64 65 70
-0.3352027735195898 -0.4754265971810573 1.2041111928759749 46 35 31
-0.4691186893865487 -0.2900063926472634 1.2237927773823463 196 202 202
-0.7789571912848272 -0.1810265097355365 1.1451490110800386 189 198 197
-0.5933924388726981 -0.1109457294298308 1.1950469340781784 41 48 54
-0.3208029787071727 -0.5493834404430383 1.1639121987996590 89 65 53
-0.5737978836594805 -0.4509820978820213 1.1101226366041548 91 68 60
-0.8186509587030101 -0.3841114549372773 1.1273364086133053 199 220 239
-0.8017269212219141 -0.3657855370328002 1.1190278858508416 77 52 45
-0.3079872813730000 -0.4348876627719667 1.2685226934766169 47 40 34
-0.2790518172848473 -0.4205956637801405 1.2580137035073229 62 63 68
-0.5696291607242080 -0.3338959714544038 1.1994626395325430 167 172 176
-0.4797013348009720 -0.2578301832629593 1.2035950451748230 167 175 178
-0.0357410667187769 -0.3185301356543920 1.3234669370563208 191 200 199
-1.0957602221205653 -0.1219368622291076 0.9404018456615564 20 14 14
-1.0377048812784200 -0.1209317146871478 0.9773433889657815 12 12 14
-1.0395820592254408 -0.1144259937656056 0.9835800879237947 52 48 49
-0.5602816713957857 -0.0026006965354723 1.2027409281114041 125 104 83
0.0407709182701980 0.0119225969646983 1.3573913673366667 172 178 176
-0.5950795326988081 0.0450823174943261 1.2081939826992365 201 210 207
-1.0155299016072568 0.0459472555711962 0.9505649673486783 36 38 37
-0.5571346222143072 0.0764120717158555 1.2113654257207656 192 201 198
0.1196532555080756 0.0743062398214477 1.3741911556445443 49 37 37
-0.1027799274205671 0.1170321466244619 1.3101835987495019 51 42 35
-0.1971200033437443 0.1331998782308309 1.2911151146773441 139 134 130
-1.0956551544810329 0.1098449904830074 1.0503364728137625 109 90 73
-0.5136932295853667 0.1365484768855488 1.2147781522549244 136 114 100
0.0986170542050977 0.1549870236751069 1.3705021793394443 147 140 132
-0.4402638580614444 0.1426817426913432 1.2302847053773163 141 128 119
-0.7092309363785870 0.1394192430224358 1.0957809744437101 157 157 147
-0.2111248385547084 0.2042571404097511 1.2923474031596749 136 127 120
-1.0304388580829855 0.1415605848718610 0.9502764503379748 43 34 35
-0.8038607217920732 0.1914102976903977 1.1363912500308251 81 64 57
-1.0163157519976378 0.1522653578494659 0.9253991396104809 49 39 38
-0.7861941514441774 0.1896044016082920 1.1126229925382605 107 93 82
-0.7728549973435660 0.1969640290495648 1.1525365172298874 107 93 82
-1.0610515382189993 0.1630267758845820 0.8753238973944603 136 146 148
-1.0875870297911254 0.1806681366825032 0.8594436940270409 33 28 25
-0.8869509362177578 0.2215267727532047 0.9978461261496303 67 74 82
-1.0776183568086590 0.2132933635965868 0.8654014585396269 69 71 70
-1.0710835774698286 0.2131859974560344 0.8547040425421997 122 112 100
-0.9348672766990898 0.2411805056952494 0.9114752923340504 124 121 116
-1.0440738646024585 0.2285437071622841 0.8935693145028814 127 122 116
-1.0846969638599189 0.2278148259841581 0.8771759258764036 52 51 56
-1.0137846504686474 0.2443468866099784 0.8969757227362791 118 117 112
-1.0666251692997344 0.2361663754989196 0.8503081734829788 153 154 149
-1.0404748945197260 0.2526819718337676 0.8595169084904923 78 74 71
-1.0056213999210624 0.2655074779758213 0.8691551584479589 61 55 57
-0.7855276360107090 0.3014881805098149 0.8206190648612457 93 93 93
-1.0332880442960866 0.2814515278026175 0.8231445233134905 159 160 154
-0.7249115386344102 0.2795534596991894 0.7152594299978426 111 106 103
-0.6539732222184048 0.3259071109125413 0.7982892337612805 125 120 114
-0.8179104751670956 0.3133428506794839 0.8082924546055174 78 83 89
-0.9868840336126035 0.2983190690614828 0.8153858254411621 116 118 117
-0.8995518132092223 0.3141948305565356 0.8239681621737507 121 121 119
-1.0301894171487600 0.2944954515354861 0.8102912813508831 130 132 131
-0.9170394597374858 0.3099183562158500 0.8103932066436226 143 145 142
-1.0247259616322750 0.2947674425223447 0.8011012131119125 123 127 128
-0.6720852507138589 0.3309052274375539 0.7636496600722755 118 118 94
-1.0339514447857416 0.2964204160325561 0.7924371308707767 146 150 149
-1.0061393173023963 0.3039548072007364 0.7982408345221333 149 154 158
-1.0850415719717457 0.2887745083646854 0.7802943298329353 81 84 65
-1.0234351565138997 0.3013819675508155 0.7916930952002135 137 139 136
-0.9726182055861213 0.3140850553103721 0.7875638791596055 117 114 109
-0.9749260324714148 0.3140267401638709 0.7635625162695022 159 160 154
-0.8211991553804416 0.2930693729718728 0.6474898189802912 65 67 54
-0.7898330008553066 0.2917519696934165 0.6276390538678450 32 31 26
-0.8543523780470756 0.2949356439913402 0.6495324337499025 86 88 74
-0.7911244812831564 0.3400790379589984 0.7259356071045283 69 72 51
-0.9837652571460878 0.3223804482133616 0.7482455118316148 163 165 162
-0.7482882850999361 0.2899507137788582 0.5810259068902807 68 65 50
-0.6542947454056774 -0.4368224092221391 1.1094436194553274 203 222 237
-0.1014183340026687 -3.0771366722427005 7.7887857449422970 145 172 202
-0.7630622035969826 -0.3502815413510205 1.0333298327262741 113 77 61
-0.3981193610670344 -0.4304291320531409 1.2364328810950109 83 83 81
-1.0693285355609770 -0.2228347593925178 0.9361877905653769 64 44 35
-0.7563980971657734 -0.2405199398851617 1.1489954737697046 170 176 174
-1.0391694018877522 -0.1569375128141327 1.0861483801932654 65 51 42
-0.7190807382924214 -0.2000032337478757 1.1692269706472653 150 155 158
-0.3266805771739976 -0.2312460337674845 1.2507469688881203 200 209 208
-0.5343664557170480 -0.1993352196139681 1.1947082233345414 128 108 84
-1.1064014738187848 -0.0924603532948746 0.9209969944828313 98 83 62
-0.5239381691065755 -0.1880620330175484 1.2040691030456401 148 130 106
-0.3988754373491019 -0.1892630709500932 1.2614869676969598 207 216 213
-1.1027054960561942 -0.0683951349086660 0.9195709082960500 101 84 64
-0.3078611776718552 -0.1457476166258723 1.2507009184309474 204 213 210
-0.5165462204945618 -0.0253945420696069 1.2196426793026003 204 205 199
-0.0237515013536106 -0.0343763892179262 1.3421280473570367 185 193 195
-0.9097838683408649 0.0413852246670982 1.0218973990171032 28 24 23
-1.1005923219462999 0.0537592665208823 0.9118680578177615 116 102 75
-0.9735693214258961 0.0738803544089566 1.2937607549659726 34 34 34
-0.8957942932442923 0.0909864459794729 1.0666278708825390 39 33 35
-0.8811004539412495 0.1133855490155648 1.1259473784821263 26 18 16
-0.7647161593042298 0.1519359744295045 1.1540965006339363 155 155 147
-1.0194566053880412 0.1444708700392729 0.9602629830011278 40 39 37
-0.6932413310591268 0.1894523137129745 1.1717507332703203 88 73 68
-1.0996184795997721 0.1462587583997230 0.8467440207765805 80 59 54
-1.0038046232818167 0.1693015586138102 0.9605296107531903 81 81 79
-1.0922749947131736 0.1540632007236772 0.8520569422363831 18 13 10
-0.7726890818967647 0.2260648284009342 1.1520203841500729 180 176 167
-1.0909368890779458 0.1591273168453538 0.8464630715006978 61 57 58
-1.0840344787198555 0.1628446083935618 0.8614815689054854 55 51 50
-1.0161001489097210 0.1861931526010210 0.8948212290998784 104 66 47
-0.0276418558781421 0.3847182846403546 1.4999515705772526 168 169 164
-1.0129482991880858 0.2051281555545267 0.9178786034274086 185 186 178
-0.4897302741472617 0.2563325412587841 1.0003351123553135 141 138 133
-1.0810258533091444 0.1965914626195337 0.8455010883832431 17 13 12
-1.0130895117665957 0.2218795431077701 0.8905995704059306 145 146 138
-0.9990404136113179 0.2352796437423618 0.9100519971737202 161 160 155
-0.7930100437111104 0.2682056031948648 0.9609749922511531 126 126 124
-1.0450325504163203 0.2301812494289910 0.8775506107303606 99 92 84
-0.7990891101274400 0.2753488548923658 0.9675093465058642 105 104 100
-1.0500192777321187 0.2405489472182803 0.8981177726067081 112 103 96
-0.9917814835856412 0.2658818463660710 0.9254307399465699 50 44 46
-0.9994055812877102 0.2667411677302243 0.9214640591859544 56 52 51
-1.0182578877035751 0.2526994520419936 0.8699902941882016 68 62 62
-1.0933921360442564 0.2450775538754278 0.8580382166001095 106 101 97
-0.8020326051276098 0.2779654082711495 0.8765675394815147 115 114 110
-1.0507706805812655 0.2496269606688226 0.8457170784674110 68 67 63
-1.0748841332443593 0.2506300336036770 0.8376045739871628 78 79 81
-1.0955669356168027 0.2797988295239408 0.9282399275640195 57 49 46
-1.0516408612248977 0.2697977714486509 0.8603253057730458 77 76 74
-1.0276782565774796 0.2730144526432468 0.8557774489431683 84 80 77
-1.0478435247541640 0.2730883755381486 0.8555107784823979 127 127 119
-0.9783799243157500 0.2915110029303765 0.8329839079043979 154 154 152
-0.9356719806048376 0.2971932825985549 0.8310235940749922 123 125 124
-0.7419268172440233 0.3120322623589159 0.7994996833110248 128 127 123
-0.9489967025995046 0.3046958468932724 0.8311859012201330 146 151 147
-1.0582867979456427 0.2845496344225270 0.8095064918322596 155 157 152
-0.9796357039176864 0.2936134154765627 0.7995032309759015 122 126 129
-1.0373423567846232 0.2916134335352720 0.8081567184962191 164 170 170
-1.0611450659107706 0.2888985443666532 0.7952137579015639 156 158 153
-1.0288331436241664 0.2957156820764280 0.7923537655459556 134 136 135
-1.0443583590304801 0.2971203851257856 0.7970520353491404 134 133 129
-0.8548341867074830 0.3064110684148922 0.7565360750705172 95 94 92
-1.0292585592041561 0.3030022989212788 0.7896450724843576 145 146 141
-0.8305160486459554 0.3006669074066606 0.6990507708612708 74 74 74
-0.9921878986484605 0.3180653809982323 0.7718598452717108 135 136 131
-0.9827958974826944 0.3163164842471433 0.7630915138995756 157 159 154
-0.8285010815511082 0.3029756617265710 0.6709189686036814 85 86 68
-0.9488610201208568 0.3235226425529298 0.7512876608244791 154 155 157
-0.9279884467783909 0.3273396918377698 0.7519415929522808 122 121 117
-1.0482719627235986 0.3078010352076130 0.7443460707474828 150 148 136
-0.9457837289063894 0.3235295913454350 0.7461387810821932 127 127 125
-0.8437169399943771 0.3286517828962731 0.7207444909597183 118 119 113
-0.9584845631601843 0.3226548482249340 0.7436224098797316 150 155 151
-1.0490618404439851 0.3163412102159190 0.7562352243489854 69 67 44
-0.9300556952852344 0.3301325783449925 0.7474829508324374 128 128 126
-0.9489719024543889 0.3313788220674153 0.7564680866171880 118 118 118
-0.9104869558849691 0.3337987164642962 0.7434022643080106 133 134 129
-0.2960226899200793 -0.5691323539517099 1.2203873578953530 110 82 70
-0.8400756665581881 -0.3445069744597895 1.0388860716345514 36 31 35
-0.3625448403878522 -0.4813678546539131 1.2362900707151971 16 11 15
-0.8784305788496289 -0.3072519386130938 1.0582912914618523 48 23 19
-0.9669382087522147 -0.2723907781855575 1.0187393249320644 112 80 57
-1.1032564079272320 -0.1291951760461514 1.1325942244511360 127 105 84
-1.1168831443363016 -0.1112271654031965 1.1588313581784992 166 168 165
-0.2536242157559966 -0.1757903490460246 1.2783725283053629 189 192 185
-1.1158149157966342 -0.0352001938257786 1.0824560758783615 173 175 172
-0.7150396239384484 -0.0573332509430038 1.1883772906107259 145 147 146
-1.0973107982096246 -0.0094677257173683 1.1125053914569685 134 109 87
-0.4166436032968120 -0.0189368725171443 1.2465996324748803 204 213 210
-0.3442892467522001 -0.0041485922015467 1.2560328845439677 191 200 197
-0.9845349107432153 0.0405308382076883 1.1415419729469409 14 14 16
-0.1695932742408174 0.1158557058339097 1.3018631185034999 151 143 130
-1.0956659790194652 0.0853170405629127 0.9069383323487140 92 77 58
-1.0545913062857248 0.0950541055950691 0.9729386779668873 33 33 35
-1.0903629540463968 0.0995717359190609 0.9217667243344648 98 85 66
-1.0729348776086474 0.1054222784874864 0.9331833787339650 20 19 15
-0.8335149260958232 0.1403598858422596 1.0581936051766201 57 49 46
-0.6288088957517901 0.1587987294408104 1.0792599880601002 174 159 128
-0.8539584548445890 0.1807941076672452 1.1394482246247872 42 38 37
-0.6798463811909448 0.2029315032390845 1.1644349355696928 132 101 83
-0.7773743805990038 0.1855108620127000 1.0668026647344453 169 156 137
-1.0171008823008869 0.1783695240258689 0.9865210533010763 158 166 169
-0.8289341316100804 0.2357701598660579 1.1389901736019006 60 50 48
-1.0203184544425943 0.1959127927305141 0.9067833521890132 43 22 17
-0.9958805413490452 0.2245292905076319 0.9428774741706255 70 79 88
-1.1194622240872252 0.2308024422811530 1.0018474389761987 44 35 30
-0.9171136558269499 0.2376627410846376 0.9635222964379633 52 59 69
-1.0160887248355484 0.2364862797897090 0.8917094072450974 143 144 139
-1.0745713795715164 0.2310280209013928 0.8694797382336288 25 24 20
-1.0762157607015745 0.2353255921508038 0.8596247036806134 127 126 121
-1.0437041647355563 0.2392687294437522 0.8600498122756900 117 112 106
-1.0352618230885757 0.2538529462980187 0.8465680440437580 100 95 92
-1.0867142188463483 0.2504164528482875 0.8331918738932262 66 64 65
-0.9681374624483544 0.2943021684112229 0.9329208426016017 117 115 116
-0.9719789922420370 0.2926395818896081 0.8800546391207630 124 123 121
-0.9802046480060208 0.2887313417375754 0.8488108338730358 159 160 155
-0.9794440921378089 0.3034931301294168 0.8069037366072597 154 162 164
-0.9491143403996329 0.3039834223865222 0.7861086897770683 139 136 129
-0.9733698457878509 0.3072941222522551 0.7897844245750820 145 142 137
-0.9504100803117000 0.3079143946803504 0.7683339702750717 148 149 144
-1.0814875500523351 0.2911845261326813 0.7672255878913065 90 88 65
-0.9548693413977787 0.3137355973590825 0.7760097712368115 147 146 142
-0.9455207226848287 0.3173557999527461 0.7670296988411085 141 140 135
-0.9639728564501031 0.3251047061413939 0.7813099952849460 144 144 136
-1.0274777785595535 0.3108632415748832 0.7663970706062158 151 150 145
-0.8438018515154440 0.3299588229949607 0.7455824323919495 115 112 107
-0.9503570469839031 0.3274579649707202 0.7692693499208713 138 139 133
-1.0713765834380060 0.3051236448430235 0.7395973364613003 71 78 47
-0.3475471118210988 -2.8814961068110621 7.7256478359325040 151 178 205
-1.0523127478033896 -0.2476345832766922 0.9995863673157215 96 67 49
-0.2126216040353723 -0.3636259622675584 1.2853829198105988 201 210 209
-0.1669618247213994 -0.3194451500786967 1.2943164915408112 187 193 191
-1.1082577275223613 -0.1409284345397109 1.1537455004709496 39 26 20
-0.5270072820766045 -0.1294779749184037 1.2151118678696602 123 119 116
-1.1105439035241462 -0.0556693635728041 1.0790772609379959 41 32 25
-0.7960110178318951 -0.0361329369012273 1.1448707011466805 188 194 194
-1.1289059823093135 -0.0106662678622501 1.0784798806100642 161 163 162
-1.1277541178948920 0.0381357394465081 1.0733263711637961 190 192 187
-0.8901447394265809 0.1328581479584954 1.1041309184928456 30 21 16
-0.7737526320265996 0.1594542944667189 1.1499632865882738 167 150 132
-1.0758112505761175 0.1393915772974736 0.9129414235544769 65 46 40
-1.1050248071974518 0.1581607958957937 0.9631428664197050 80 59 54
-1.0771246677799127 0.1623774699017479 0.8647974949046154 24 13 11
-1.0218172316396363 0.1743638090488591 0.9167763968856130 32 17 14
-0.9964417490317655 0.2002648821896054 1.0068621519202539 115 116 118
-0.4099461857024805 0.2556460200982004 0.9599111645003889 159 162 155
-1.0219940280370448 0.2097735561724433 0.9131466441469985 32 21 19
-1.0460740697268072 0.2453710976600884 0.8554828908409301 153 150 143
-0.7342372801343671 0.2801676074295648 0.8050172939052508 168 165 160
-0.9344473253680121 0.3028453163516331 0.8273901412577355 135 139 138
-0.9822998586455325 0.3050459964995547 0.7924943986536604 119 114 108
-0.8874884309889300 0.3120200368914635 0.7683018845752119 135 132 127
-0.9516769904608910 0.3102998765899134 0.7856878060793437 116 109 103
-1.0184288178033829 0.3127370697061188 0.7871883074756630 138 135 130
-0.8157094796727515 0.2961397262516117 0.6573222473819920 57 59 48
-0.9729947129735687 0.3166303011983232 0.7551861283313572 146 147 139
-0.9843265138397304 0.2983648629222759 0.7000398370832275 167 168 163
-0.9664566311098166 -0.2815526216891677 1.0389877385643278 112 80 57
-1.0036011323905762 -0.2593674022877969 1.0036350631766715 108 77 56
-0.3669626134863843 -0.3968408499449430 1.2304244086541969 136 119 93
-1.0209405018461957 -0.1196736037551102 1.0175950442866968 41 42 46
-1.0209405018461957 -0.1196736037551102 1.0175950442866968 41 42 46
-0.3689130609488406 -0.0111940988613323 1.2633325791826664 213 214 208
-0.8954049368814554 0.0132052697394863 1.0634596275828518 10 10 10
-1.1004164400387293 0.0595179135631991 1.0801798587837173 68 55 47
-0.6570126628583891 0.3554283936566810 2.0669411828518061 139 124 117
-0.7415881460673724 0.2366034981243064 1.1582225876953141 22 22 24
-1.0472114583819447 0.2158464354519573 0.9068881546371291 135 127 114
-0.9787093429399705 0.2579125236654378 1.0207153279607353 33 39 51
-1.0501844234717022 0.2261473582252367 0.9024750682233050 42 40 43
-0.5829009514360118 0.2617070160799009 0.8086112714179687 113 109 106
-1.0215223607941408 0.2450703076365482 0.8669765216174918 148 143 137
-0.7692395236571058 0.2809439777635466 0.9051693814977717 99 95 92
-0.6526165032821684 0.3104384485400326 0.8064591640585963 157 153 150
-0.9911910023933493 0.3033420666185822 0.8107302845913867 148 156 158
-0.9578759512032043 0.3043184464820161 0.8044993339464294 98 97 93
-1.0473592202658528 0.3043164436012653 0.7819804178086311 105 105 103
-1.0480955910226779 0.3012984805824565 0.7752591059542023 105 105 103
-1.0748977429850888 0.2899835724976681 0.7488391512889156 101 99 76
-0.7999657434536389 0.3152084133536190 0.6496525487295972 54 56 45
-1.1261593833975139 -0.1316998890003398 1.0699860229173994 89 84 81
-0.9973499641409450 -0.1533502730630013 1.1290750640062459 20 20 22
-0.2747553161566835 -0.1400987168959187 1.2455276057506453 171 177 175
-0.8080126590344017 0.1645889433473549 1.1113106460613231 167 141 124
-0.0891367506689776 0.2381665584537344 1.2213746991020149 54 56 32
-0.7507904985199958 0.2304363301254126 1.1238342257527698 14 15 17
-0.7435885585879333 0.2857255258923026 0.7860129235566310 144 134 124
-0.9773248313066391 0.2899871989870311 0.8442385855749078 155 155 153
-0.9562643874404726 0.3011683430741290 0.8297808212325771 139 144 140
-0.9082743224721891 0.3220287493255786 0.7806824357981412 143 142 137
-0.3057091756208264 -0.0896057786543778 1.2251008152770486 166 172 172
-0.7345902199129066 0.1196590710715339 1.1491891784071941 37 27 25
-1.0191261964844145 0.2449042929729787 1.0192101276530987 124 118 106
-1.0775016999687206 0.2554503501894210 0.9554573267611861 23 21 24
-1.0104987205359799 0.2974653826801339 0.8180025342078876 115 121 121
-1.0172328913610598 0.3012822391068810 0.7915212835700336 149 153 154
-1.0467782307345339 0.3035921843161374 0.7448265162242130 145 142 137
-1.0285413421818914 -0.0824443626553814 0.9981354843063910 37 38 40
-0.7189768331691097 -0.1005773401705903 1.1636272124616520 191 200 199
-1.0632507618640119 0.1584218756330909 0.8504124241125866 135 145 147
-0.8390955492624276 0.2700198003139827 0.9727722215369830 28 26 29
-0.8371906244284470 0.2719842549171755 0.9791759482014191 21 19 22
-0.5805210820238375 0.2609932160384446 0.8308358746587280 118 103 96
-0.9107004683594940 0.2726083349315890 0.9534844011562923 83 72 70
-1.0595911519559156 0.2400918045202247 0.8628907977848087 143 140 133
-0.9231334744964695 0.2789920198640223 0.8985736199394969 161 158 151
-1.0560738915195695 0.2653309536867201 0.8674122614010772 76 76 76
-1.0015363880198445 0.0320090952590932 1.1027101588649904 31 31 31
-0.8054165782009516 0.1649222913641368 1.1352247512063918 153 131 110
-1.0327535821503258 0.1875953708020082 0.8973173543196132 72 40 29
-0.7961689391267602 0.2873272133214497 0.9483480475081707 111 106 103
-0.8088678250526580 0.2748983860276194 0.9157397714109907 140 131 124
-0.5960085247249071 0.2661886107270188 0.7234751464016490 152 145 139
-0.9619017447676771 0.1606054020713498 1.0637057971744590 25 17 14
-1.0656716663756889 -0.1772729397241037 0.9908077271706069 78 74 73
-1.0179630919078861 0.2553094710118090 0.9672021622427559 124 119 115
-0.8008547061110899 0.0383464801728579 1.0417627346228233 165 174 173
-1.0749192426398737 -0.2080496888018662 0.9260641409944090 111 83 61
-1.1470190385614460 -0.1702999511081292 0.9910984331834154 163 130 95
-0.3593404205780462 -0.1834519111331967 1.2517838469191753 77 78 82
-1.1770856133239282 -0.0711755041151476 1.0727189038519358 129 123 123
-1.1491831241336556 -0.0678505772866394 1.0765326570280538 252 254 253
-0.4194243613910166 -0.0815496176817346 1.2418747108560928 181 187 187
-0.7328591508451132 -0.0248630371058461 1.1331283959943563 164 170 170
-1.1671423964680303 0.1070747512907944 1.0777502157123851 116 106 107
-1.0059437268902027 0.1010747170219762 0.9685011111444236 15 15 15
-1.0855092710490892 0.0993740578093990 0.9027704321107499 56 38 34
-0.2437136744441602 0.1296674737492859 1.2828898965578486 55 50 46
-1.0564394471929439 0.1285732164371507 0.8689498987902059 24 15 16
-0.4644497556439642 0.1844943719909504 1.2281627979528973 45 35 33
-0.9471067266286606 0.1794009183541719 1.1249297099581839 12 11 7
-1.1317455306177335 0.1767958671501389 1.0733584905282523 101 91 82
-0.3562615427805561 0.2243159931262858 1.1797737862576343 98 80 68
-1.1415198035810548 0.2209112973959542 1.0682467600378065 56 42 33
-1.0445517193431046 0.2006604246548651 0.8773055766719324 49 28 23
-1.0207100510557370 0.2141536495700301 0.9106501135304981 53 40 31
-0.9492530150425256 0.2066078429727133 0.8655757413290501 54 63 72
-1.1272549898661113 0.2536250023990904 1.0113713019196313 96 88 77
-1.0689178294133101 0.2284989248666565 0.8534820858504104 130 128 116
-0.9432659764695072 0.2474422903607251 0.8935272312964991 76 76 76
-0.7300312562732010 0.2650659369961522 0.9018899299423538 126 127 122
-0.8704298045860355 0.2793263904727699 0.9193314445805412 121 116 112
-1.0564671495116604 0.2541919508708773 0.8575404265810241 66 67 71
-0.8100357079775330 0.2793836093765960 0.8753457863175551 136 135 133
-0.6540784585392088 0.2697605871295815 0.8116777006103175 122 122 120
-1.0999045818401989 0.2904312744263648 0.9347964334276621 82 73 68
-1.0639659941581514 0.2688134912978865 0.8525874929311037 74 78 81
-0.8700483063528558 0.2965233269675659 0.8696816038944951 94 95 97
-1.0475136212059188 0.2755378423500115 0.8268231723344196 149 149 139
-0.8695157069943962 0.2930220335289316 0.8392555550383205 96 99 104
-0.8733911839649007 0.3025602829599820 0.8581456314870171 90 91 93
-0.7600209910006311 0.3010604179491360 0.7849277436179846 125 126 121
-1.1564109981538251 0.3161549188780507 0.5202982386022587 153 131 94
-0.9059406680009252 0.3101435215869733 0.7906323571056101 89 89 89
-0.9021208170698591 0.3191863005796617 0.8008544391125484 121 121 121
-0.7435352948523655 0.3261924537058996 0.7645522210309844 124 121 116
-0.8534150258542362 0.3264303565734021 0.7598966012714369 140 140 138
-1.0347088418861665 -0.2470501937649097 0.9625348391402055 94 76 62
-1.1751704711141715 -0.1682193180376435 0.9835330521443674 177 136 106
-1.1638883660723569 -0.1618718044608053 0.9873221169381922 183 140 105
-0.7576801210082705 -0.2403273563496902 1.1502569797534803 138 146 148
-0.5887050396845958 -0.2550952262338792 1.1951168401742729 174 183 182
-1.1345883655023705 -0.1020098749685037 1.0768547803091220 74 74 76
-0.5468033271806754 -0.1652509400120420 1.2179614840090482 41 42 46
-1.1327097543889681 -0.0552969163775104 1.0618672815054684 68 66 51
-1.1557719776363868 -0.0129989150686845 1.0710248919974428 236 242 240
-1.1174210550220871 0.0152587185482303 1.0871400626641314 229 235 233
-0.8275460750389712 0.0865552197005548 1.0676844182430667 174 180 178
-0.7027370638488002 0.1207914803026132 1.1416590689375772 138 124 111
-0.4290597465809617 0.1594044760637396 1.2251091008540824 62 39 31
-1.1188021827125021 0.1384657034325144 0.9795700987325865 53 33 26
-0.9294597144643252 0.1547305167386072 0.9768338126844339 30 28 29
-1.1744420304602439 0.1811073465795645 1.0774667979507164 109 107 110
-1.1746131173576868 0.1805927737049815 1.0744334342307567 109 107 110
-1.1587666971971371 0.1871715977776856 1.0656377024915520 192 165 144
-1.1422812124073274 0.1899731208130106 1.0718516314498476 124 101 83
-1.0253774604131678 0.1816079087478665 0.9214352935483497 69 41 30
-0.6534910662360116 0.2334195198543520 1.1077201976115689 12 29 37
-1.1728700578400610 0.2206155252644361 1.0812581624749518 47 41 43
-1.1590786443530612 0.2309878603289738 1.0688080075282211 77 64 58
-0.9254430748879224 0.2275661760634145 0.9807659585519715 38 45 53
-0.8329695473146836 0.2500374114148566 0.9539677138486892 50 46 45
-1.1290591010242224 0.2587103012844983 1.0121259113079761 99 91 80
-1.0141794691267481 0.2756220199676873 0.8394365035789070 137 138 132
-1.0581104680953743 0.2780854176973411 0.8395755513845324 145 146 140
-0.8416902952318475 0.3039395092457235 0.8305199578617319 50 51 56
-0.8559602382814153 0.2992442936040843 0.8116983942030325 93 97 100
-0.8772915912959762 0.2994593816447878 0.7878749260143879 120 120 120
-0.9170867906221446 0.3104794863637321 0.7706560077179134 117 116 112
-1.0347105507634635 -0.2450450088658102 1.0033529506426215 83 60 46
-1.1625992813691821 -0.1822869402283133 0.9851049230545904 178 137 107
-1.2358734580216806 -0.1654489357389925 0.9677982776551451 174 141 110
-1.1631311040847618 -0.1698316366854944 1.0714752835570203 106 68 49
-0.6146163413275122 -0.1845708651627948 1.1905010555386353 147 130 102
-1.1740530225572581 -0.1161691443095110 1.0873595335933239 110 92 72
-1.1576360549702835 -0.0929919404757048 1.0684682666736425 100 96 93
-0.4098576679089947 -0.1391757981971145 1.2420069862033487 197 203 201
-1.1318771386249602 -0.0482726277531672 1.0701737687629709 160 152 129
-1.1346239359361265 -0.0233573915034049 1.0775398484180885 183 185 182
-0.7705168274513994 0.0850096256727339 1.1607760693937941 187 196 193
-0.9110167648565344 0.0847648072414783 1.1135658463308256 34 32 35
-1.0916893531505301 0.0919830339009745 1.0837752230522142 194 179 148
-1.2630523148951429 0.1286705000227595 1.5042557292854801 19 15 14
-1.1360903678129537 0.1408543542334672 1.0121522344495451 20 10 8
-1.1821513482551622 0.1545949930855425 1.0738750462249635 96 90 92
-1.1596142385805681 0.1615985530800056 1.0664921258743030 182 174 163
-1.1529877103892314 0.1697260225086662 1.0695080732098976 33 23 21
-1.1172296327297613 0.1794925404253131 1.0114548827713910 43 32 26
-1.1243774542555394 0.2464699694674260 1.0100519742997385 36 31 27
-1.1231873715269214 0.2659142411775609 1.0161869955151408 20 20 22
-0.9692407447121849 0.2586818928745422 0.9151526995132576 46 42 43
-1.0255876020783694 0.2749040067656857 0.8458344052100994 156 156 148
-0.9511613836069657 0.2866949209905051 0.8295590676228135 110 104 104
-0.8446522733082334 0.3103736862957870 0.7472872888604036 77 77 77
-1.1153564278579753 0.3007136317688726 0.7412754548781968 73 68 36
-1.0602115630621189 -0.2243376212797077 0.9374544993797093 96 67 51
-0.4463710163228373 -0.3807133479804559 1.2329017034437686 205 204 200
-0.3213149219035404 -0.3223715382438646 1.2712108159848905 191 200 199
-0.3393494903917613 -0.3173233715899865 1.2495529166111912 206 208 203
-1.1695282431952156 -0.1720546485221874 1.1418255355363620 29 11 9
-1.1675521764804602 -0.1033675127404247 1.0646349833963396 99 90 85
-1.1491434356620152 0.0139624121677801 1.0675049163401742 157 161 162
-0.9062512833073699 0.1661390554439358 1.1061641141854757 18 14 11
-0.7708240528762509 0.1787136447212256 1.1565532175998874 75 58 50
-1.1231220687762875 0.2639247012320328 0.9683272599584953 117 106 102
-1.1594006903519340 0.3033477606736690 0.7579479501547939 74 72 49
-0.9268337498553381 -0.2950117772491238 1.0322449670177556 110 79 58
-1.0337143837140679 -0.2384595932499624 0.9681288727927697 104 73 52
-0.3213288833287632 -0.2251722598949955 1.2513295191931073 219 220 214
-1.1930279671056001 -0.0841679001796482 1.0814604586894767 87 70 54
-1.1234969615688088 -0.0687149216945012 1.0655671927323203 136 135 89
-1.1371277978155774 -0.0342903892151056 1.0739164835593620 92 91 86
-0.3975179735597069 -0.0884967019513197 1.2613409809776719 204 213 212
-1.1279167205041403 0.0253587287628581 1.0751038116836160 155 159 158
-1.1639103276424734 0.1378751844275417 1.0588283145312818 232 224 205
-1.1557635786491411 0.2726710630040081 1.0698835579725419 49 48 46
-1.1528329459126869 0.3051377477486130 1.0328322615777179 166 150 124
-0.4313016494823398 -0.4866685154340480 1.1762988402036727 39 24 19
-1.1098213158201140 -0.1652045321187888 1.0818098733286710 80 57 43
-1.1783357064047466 -0.0824773638172760 1.0753661890412365 21 15 17
-1.1133398765738898 0.1063938299513475 1.0536117846642568 188 192 191
-1.1190716398073817 0.1229648611348779 1.0188031866709353 67 49 45
-1.1272277930617787 0.1992007471543396 1.0761924224653934 41 27 24
-0.7895815843396604 0.2255005395650817 1.1399152565194546 82 74 71
-1.0980019782850226 -0.1165472501749141 1.0757954649198793 106 85 64
-1.1599264121163888 -0.0764754335584769 1.0724737933061774 186 190 189
-0.2651574616040270 -0.0847685173460988 1.2719518425582259 165 171 171
-0.7681069737786437 0.3035205347857802 0.8356485564555443 73 73 73
-1.1696097090065549 -0.1739375342311436 1.0368253325939663 105 67 46
-1.1601116437521948 -0.1254859273725374 1.0427805179572007 81 74 68
-1.0265704288606872 -0.0396960379853532 0.9776799675548211 27 28 32
-0.6360409921579683 -0.0537256195121050 1.1841552258148931 45 55 57
-1.0916113022784413 0.2936805621900599 0.8788092521383162 139 136 127
-0.6589851266208575 0.2591878549498550 0.9870979270424999 169 165 156
-0.9393018894594390 -0.2916484532377979 1.0535954867076001 112 81 60
-1.0983186533904681 0.2992594028539124 0.8012913824384678 76 74 49
-0.7623097806567513 0.3368335454191141 0.7805460336142959 62 63 68
-2.6680108724233853 -2.4150424160693897 6.5917826125229109 45 48 63
-0.6413312400329073 -0.4148492570551053 1.0952000978656362 71 48 42
-2.6482325250600320 -2.0773533074035919 6.2854223795841939 75 74 82
-0.8296101923507956 -0.3471026126864555 1.0874007972912467 82 55 44
-1.1548929048220533 -0.1727402443118824 0.9903256685626164 174 133 103
-1.1405658180474945 -0.0303982879083915 1.0746985748682512 161 164 157
-1.4893344546024530 0.0007608207708503 1.4347023319378616 62 51 45
-0.8500150001331789 -0.0187909195238829 1.0632548790636629 130 114 88
-0.8336200845601559 -0.0113314996541435 1.0801497982627386 155 161 161
-1.4924003888902300 0.0684712989563963 1.4372190496090660 242 245 236
-0.9204607679603393 0.0938697788253812 0.9985208992327363 22 14 12
-1.3679402592704089 0.1621844008036699 1.4709375394648045 61 61 63
-1.2815305726619717 0.1684775301915044 1.4970674920857232 49 47 48
-1.4138727956408774 0.1698464395623119 1.4573484525284468 69 68 73
-1.4262378628587082 0.1890346326079643 1.4531955330159136 60 54 54
-1.4339804945700130 0.1942576091546163 1.4519162983675264 75 75 77
-1.3736445727286892 0.1975499255499642 1.4728060581901665 66 62 63
-1.4303437213457080 0.2025276544288485 1.4478060727667847 55 44 40
-1.4016734641833395 0.2066196857579176 1.4607032436466310 68 68 70
-1.2890479415260301 0.2080617868816322 1.5006473894411254 46 45 51
-1.4514632361528645 0.2079744063075493 1.4422747517884953 61 50 46
-1.3204069679759081 0.2471668572521978 1.4894137639725828 49 50 55
-0.8012714186681013 0.1852845596797632 1.1404279083561035 134 107 96
-1.4608898195718585 0.2641160672145461 1.4407881311075565 50 46 47
-1.3924312642307208 0.2886630484748246 1.4617437699991311 55 58 65
-1.4734868695477688 0.3019943036732560 1.4350080085146455 60 63 68
-0.9804147831748289 0.2155352586744563 1.0653583687263608 19 14 11
-0.8530274333022274 0.2184034684389320 1.0435786986733775 77 64 56
-1.4032345153200609 0.3060178482638405 1.3405757584586657 82 81 79
-0.7963554885941205 0.2446009591889023 1.0363895811747885 142 135 125
-0.7868208274995575 0.2438230120234587 1.0352314914055225 133 129 120
-0.7605204024822758 0.2488157986166775 1.0340728385704578 136 129 121
-0.7355878813056520 0.2892307480005976 0.8924470179335868 151 152 147
-0.9408823670032129 0.2865658033708551 0.8333365040530809 107 106 104
-0.8851620371797054 0.3028022370758286 0.8236284831618644 114 113 118
-0.9590649860186353 0.3215832121004316 0.7586370583055674 146 148 145
-2.6300966746996797 -2.1577736010794863 6.3576534711490185 76 75 81
-1.0608478278726030 -0.2475850687543359 1.0171395461685460 120 92 78
-1.1072753550173320 -0.1202266080039905 1.0723391963823687 127 105 84
-1.5085946234698959 -0.1265252566947303 1.4364999436652186 85 68 50
-0.8182291070610695 -0.0301999012041969 1.1160015726520196 158 164 162
-1.5049185688922646 0.0231875450653073 1.4388503789302711 24 23 28
-0.7931779105292269 0.0121634766439102 1.1476306277096140 182 191 190
-0.7475348730351810 0.0332569816343878 1.1637893453704056 162 166 165
-1.4979171388235057 0.1022225894436877 1.4255426146611980 217 202 169
-0.9024391485122493 0.0620301769674947 1.0467440179288463 27 21 23
-1.3025006956007181 0.1519087073804141 1.4993891367316619 54 53 51
-1.4275194042362909 0.1697353396156395 1.4513860927282143 57 46 44
-1.4846854315194946 0.1930220419282922 1.4361164870343586 77 75 76
-1.4178874362419662 0.2082040495144698 1.4575214175362237 66 69 74
-1.3355973189158361 0.2210626285916842 1.4834370319370955 42 43 48
-1.3389332685737114 0.2347132144654730 1.4825433514127435 52 55 60
-1.4842263965447953 0.2456224072450389 1.4381568955217467 73 74 76
-1.3507291306915519 0.2514289431849330 1.4726859658736855 42 33 34
-1.3672321415275581 0.2531256769709711 1.4701283502964553 29 27 30
-1.3590373017002437 0.2597265847832401 1.4726460984489249 50 53 58
-1.3192822706294218 0.2620301208665342 1.4878492464924478 35 36 41
-1.1085377905136298 0.1844209333281772 0.9887362660680544 16 7 8
-0.8289060669363146 0.2218593707807002 1.1284505133140996 139 121 111
-1.1188199624857462 0.2329752432233612 1.0076650874267035 44 37 31
-1.2722197493667551 0.2907887624611604 0.9362864861977717 89 90 94
-1.0604836573653262 0.2924821905238075 0.8044092781232529 156 158 153
-2.1483747298207971 -2.2800429828937849 6.6554470092064459 149 153 162
-2.6907544652026951 -2.0543422994067750 6.3174040894459118 104 108 109
-0.8018391223362293 -0.2121528182193097 1.1535778434561004 178 182 181
-0.7162580395452808 -0.2171412832472456 1.1732222296349457 163 169 169
-0.7333715065590848 -0.1866852692625189 1.1585348675218843 192 201 200
-0.8380262347546780 -0.1131198313484073 1.0589847766089469 169 175 173
-0.7286507206994823 0.0696063614646283 1.1689686854163801 189 195 195
-0.5982045157063094 0.0659573259601118 1.2027046528190275 164 173 172
-1.1367065889184729 0.1080791974636770 1.0244848357396534 168 172 171
-1.4313659361422149 0.1809354580031877 1.4519665465198890 70 75 78
-1.4275469446983551 0.2323458412596522 1.4543555775324291 57 44 38
-1.4521498149399104 0.2619099365499882 1.4475860664500930 61 64 69
-0.8477323837570656 0.1789274431233329 1.0461727741866926 98 82 59
-1.4746338702860842 0.2859138737244641 1.4398696949513432 57 60 65
-0.8344013494892131 0.2137239405722242 1.0372276741374717 87 70 63
-0.7826229054145604 0.2701914097504143 0.9657114250456544 139 135 134
-1.2305822557573991 0.3039578739811001 0.9741702996248016 190 188 149
0.3026326368161146 0.2228555762124642 1.0126596891947606 93 78 71
-1.0999993375603692 -0.2449850427695183 1.0104961493997826 65 65 73
-1.2800555534324192 -0.1575276891734681 0.9517810128510016 156 122 95
-1.1514376152523043 -0.1863607562300089 1.0703334835595175 96 64 43
-0.7952119520530055 -0.1938313426329694 1.1502324829800810 206 215 214
-0.8127220438618515 -0.1410979826586813 1.1321220237803833 178 184 182
-0.8021673000036096 -0.0545973895641419 1.1483343167384850 151 157 155
-0.8112823735500907 0.0168016121581040 1.1403292442283453 187 196 195
-1.4734392126863152 0.1731318107858086 1.4392084313332683 75 77 76
-1.4158877200626698 0.1912709827601928 1.4548081862267350 56 45 41
-1.3827419004732833 0.2406222812171756 1.4698927567676201 59 64 70
-1.1643268850139492 0.1810128613283346 1.0732704931708141 46 31 26
-1.3773542099246205 0.2575966277927877 1.4754198948467854 31 29 32
-1.1647060883316867 0.2221916272649006 1.0721228920430150 32 22 20
-1.4092299174861640 0.3057319312517613 1.2273676850784041 49 49 39
-0.8857934014666685 0.2617946785344409 0.9243267724808798 65 57 55
-0.9438018407706118 0.2921686320943356 0.9057545736593225 101 90 84
-0.8506780944245264 -0.3273800106002995 1.0571174821296556 97 68 52
-1.1415186185934583 -0.0810641429207415 1.0636011124536362 52 44 33
-1.4691821914960719 0.2708609696800697 1.4450570193965517 53 47 49
-0.7263401137732608 0.1904333545107192 1.0979982230292344 103 72 54
-0.7546331194850975 0.2291126720256587 1.1189703554769301 17 22 26
-1.2643503202805668 0.2907505238700249 0.9503417146126676 56 54 57
-1.2832987704936878 0.3006881884931685 0.9400782518001976 16 10 10
-0.9016136706786927 0.3104641882028469 0.7926815300264010 93 93 95
-1.3823161872813019 0.1714881324986611 1.4545874818048703 72 63 58
-0.6734108850760376 0.2288949437265448 1.0225039876228224 17 40 48
-1.2454774030724651 0.3069940567734447 0.9755665145340066 40 34 34
-1.1736241235764087 0.3105035209192182 0.7889703612613571 51 55 30
-1.0516971049686874 -0.0863876758872853 0.9805116031425589 14 10 11
-1.0188452668131422 -0.0937124611369483 1.0883068701549861 37 38 40
-1.4755679963655983 0.0928877639637153 1.4383483863035205 84 68 55
-1.4546627504203302 0.1249017899773599 1.4361251783383198 113 118 122
-0.7332306606278184 0.1912734283272035 1.1697233499889581 211 193 173
-1.2193575205391278 -0.1565687280979591 0.9714292944257775 177 141 107
-0.8621563726136600 -0.1979151496403781 1.1205748598287064 166 170 169
-1.4474258127927406 0.1215404377908788 1.4352289014999802 86 91 97
-0.3381308912540650 -1.0712916095167433 2.4053367604518576 143 172 214
-0.8683319045221054 -0.1494213845435684 1.1353215771633545 31 29 32
-1.1511134017317413 0.2385379227046493 1.0429834147681345 36 30 30
-0.2556958960626812 -0.5074157513580635 1.2477079326014515 62 22 12
-0.2034282064463162 -0.3270307476135123 1.2279483165921665 199 205 205
-0.5730909876838065 -0.2076653161851269 1.1971894550583182 198 199 191
-0.5024054918328354 -0.1980628418215147 1.2072030460630305 129 114 93
-0.0665335132934233 -0.1153394498713848 1.3270362331620655 181 190 189
-0.0814061201093616 -0.1107618259889471 1.3204469129325078 193 202 201
-0.7671410121164428 -0.0352326825885152 1.1672003101594923 194 200 200
0.0269475387234202 0.0076072717068453 1.3535374636247239 183 192 189
0.1620287558161861 0.0771658748102592 1.3831775932881796 163 156 146
-0.7007379252061771 0.1485839425274291 1.1678199613447837 57 44 35
-0.0015139959091624 0.2025665965917094 1.3447741303247109 138 123 102
-0.3564745185263332 -0.5055717114513055 1.2320818446505053 45 30 23
-0.4955400806059812 -0.2692367365418870 1.2079291680817172 207 217 218
-0.3623204228529313 -0.5171734131475345 1.2276705269883539 64 47 40
-0.7368038798279408 -0.3731513758904269 1.0942259941160317 123 88 66
-1.0032827979455250 -0.2572576460294723 1.0092894488883830 118 86 63
-0.2792499972674780 -0.4285567882846992 1.2506533140829557 80 81 85
-0.7771866882959786 -0.2248515330119494 1.1489982539468822 190 196 194
-0.6213348070866356 -0.2527366580533565 1.1783005674726923 164 170 168
-0.0905677108254191 -0.1344173267814138 1.3155049050168917 192 201 200
-0.8687178286654286 0.0015038480702028 1.1311117444462917 34 34 36
-0.7716161451191156 -0.2439262783449219 1.1469895576647262 199 208 207
-0.8415011893125950 -0.2146275429089648 1.1331261530103165 204 213 212
-0.4488121957760620 -0.0352604593727241 1.2331489789264800 205 214 213
-0.3473137597410999 0.2461164341346117 1.0337857376769433 119 110 81
-0.4115289508709659 -0.4999426563056838 1.2003127762448413 49 29 22
-0.1876745298809667 -0.4989909176524311 1.2407577029203170 87 42 21
-0.2037149026760389 -0.1667273534638891 1.2944312183454416 202 211 210
-0.6800478891632410 0.0125898204920435 1.1745956854647797 69 55 42
-0.0894114064506731 -0.0001400493627839 1.3258140266489504 158 164 164
-0.0866735038732261 0.2328837980824114 1.1687972352912603 47 51 28
-0.3615710909180036 0.2501722869701566 0.9719117938213884 46 50 33
-0.9300630673317327 0.2939668139359925 0.7492359582881303 111 110 108
-0.4761828786868657 -0.3093268015016312 1.2299468631358146 192 198 198
-0.1872101961794576 -0.0462792459672003 1.2932642149569675 199 208 207
-0.7968992552824548 0.1694282198142140 1.1464271955954839 167 141 124
-0.5886411600778489 0.2654892235190145 0.7740165890429287 102 98 97
-0.5815604325621268 0.0318226282842018 1.2185996838988402 212 221 218
-0.3955280345250309 0.2316615681106998 1.2050229592868422 147 144 129
-0.8297985129456558 -0.1166699075676371 2.2810695352947947 9 7 10
-0.1779481412963886 -0.1069312844796050 1.2910077344820050 200 209 208
0.0112412890994772 -0.4714655281595011 1.2621952769534894 31 22 25
-0.0681816036404488 -0.2307394351904623 1.3257833563900150 189 195 195
0.2655978210689797 -0.1256746355793172 1.4399224864130367 28 32 33
0.2743986771774669 -0.1153002118057182 1.4186407192330244 92 92 90
0.0266102905261565 0.2024719879895825 1.3558847438280568 136 118 106
-0.4981934584772130 0.2097814237450122 1.2154692608812172 138 117 96
-0.7002739809255006 -0.3834154140571083 1.0544415104327676 64 43 38
-0.3911712656872234 -0.3957682022134504 1.2091567617881740 175 179 180
-0.6229693651595966 -0.2968935938682400 1.1849182371357454 179 181 178
-0.3270342771725451 -0.4894249918918027 1.2676935557893365 12 10 13
0.1547874462350592 -0.1056345144625647 1.4056203191640266 28 29 33
